ply
format ascii 1.0
element vertex 54
property float x
property float y
property float z
property uchar red
property uchar green
property uchar blue
end_header
-2.954095 -4.219226 16.273399 255 255 255 
-1.999054 -4.199009 15.926509 255 255 255 
-1.059021 -4.181407 15.661037 255 255 255 
-0.103555 -4.145099 15.326961 255 255 255 
0.845179 -4.147993 15.250288 255 255 255 
1.826273 -4.099223 14.981115 255 255 255 
2.801915 -4.082278 14.894270 255 255 255 
3.781728 -4.037554 14.747154 255 255 255 
4.748862 -3.989208 14.610954 255 255 255 
-2.953352 -3.256400 16.381107 255 255 255 
-1.990552 -3.233412 15.953122 255 255 255 
-1.050486 -3.208483 15.709199 255 255 255 
-0.090066 -3.170648 15.410324 255 255 255 
0.862894 -3.148338 15.160669 255 255 255 
1.832955 -3.105330 14.987180 255 255 255 
2.807961 -3.074095 14.851220 255 255 255 
3.757809 -3.026691 14.625735 255 255 255 
4.705910 -2.974501 14.476994 255 255 255 
-2.944991 -2.284862 16.482283 255 255 255 
-2.004485 -2.258927 16.180189 255 255 255 
-1.042256 -2.231037 15.803169 255 255 255 
-0.082003 -2.197160 15.539885 255 255 255 
0.876139 -2.163828 15.272578 255 255 255 
1.833980 -2.115719 15.003282 255 255 255 
2.796916 -2.079982 14.791786 255 255 255 
3.750782 -2.038288 14.648245 255 255 255 
4.696259 -1.993131 14.497948 255 255 255 
-2.953106 -1.319754 16.652819 255 255 255 
-1.991449 -1.280156 16.300184 255 255 255 
-1.025628 -1.251572 15.956445 255 255 255 
-0.070033 -1.212802 15.649346 255 255 255 
0.888561 -1.180341 15.359814 255 255 255 
1.852553 -1.141456 15.083757 255 255 255 
2.809944 -1.094789 14.946968 255 255 255 
3.758491 -1.061450 14.733294 255 255 255 
4.696112 -1.019850 14.581606 255 255 255 
-2.951734 -0.313243 16.891012 255 255 255 
-1.992331 -0.288789 16.503981 255 255 255 
-1.031715 -0.263310 16.155907 255 255 255 
-0.056709 -0.228131 15.814629 255 255 255 
0.904524 -0.194441 15.542354 255 255 255 
1.858346 -0.154522 15.286530 255 255 255 
2.814280 -0.124311 15.049516 255 255 255 
3.761793 -0.079153 14.861439 255 255 255 
4.704486 -0.037365 14.781596 255 255 255 
-2.964158 0.672652 17.149509 255 255 255 
-1.991217 0.709664 16.764364 255 255 255 
-1.012044 0.720297 16.386232 255 255 255 
-0.039564 0.758817 16.044670 255 255 255 
0.910953 0.787064 15.735943 255 255 255 
1.867010 0.830717 15.543203 255 255 255 
2.831721 0.869000 15.332760 255 255 255 
3.777554 0.895936 15.115351 255 255 255 
4.716321 0.929807 14.993439 255 255 255 
